ply
format ascii 1.0
comment VCGLIB generated
element vertex 474
property float x
property float y
property float z
property uchar red
property uchar green
property uchar blue
property uchar alpha
element face 0
property list uchar int vertex_indices
end_header
208 200 1 0 0 255 255
206 202 1 0 0 255 255
207 202 1 0 0 255 255
209 202 1 0 0 255 255
210 202 1 0 0 255 255
216 207 1 0 0 255 255
216 209 1 0 0 255 255
219 209 1 0 0 255 255
241 209 1 0 0 255 255
215 210 1 0 0 255 255
216 210 1 0 0 255 255
217 210 1 0 0 255 255
218 210 1 0 0 255 255
219 210 1 0 0 255 255
220 210 1 0 0 255 255
221 210 1 0 0 255 255
238 210 1 0 0 255 255
239 210 1 0 0 255 255
241 210 1 0 0 255 255
243 210 1 0 0 255 255
244 210 1 0 0 255 255
216 211 1 0 0 255 255
241 211 1 0 0 255 255
224 214 1 0 0 255 255
226 214 1 0 0 255 255
241 214 1 0 0 255 255
226 215 1 0 0 255 255
226 216 1 0 0 255 255
227 216 1 0 0 255 255
226 217 1 0 0 255 255
228 217 1 0 0 255 255
261 238 1 0 0 255 255
232 260 1 0 0 255 255
233 261 1 0 0 255 255
235 261 1 0 0 255 255
237 261 1 0 0 255 255
236 262 1 0 0 255 255
235 263 1 0 0 255 255
237 263 1 0 0 255 255
238 263 1 0 0 255 255
239 263 1 0 0 255 255
236 264 1 0 0 255 255
237 265 1 0 0 255 255
238 265 1 0 0 255 255
239 265 1 0 0 255 255
208 200 2 0 0 255 255
207 201 2 0 0 255 255
209 201 2 0 0 255 255
206 202 2 0 0 255 255
207 202 2 0 0 255 255
217 209 2 0 0 255 255
218 209 2 0 0 255 255
219 209 2 0 0 255 255
241 209 2 0 0 255 255
241 211 2 0 0 255 255
238 212 2 0 0 255 255
239 212 2 0 0 255 255
241 212 2 0 0 255 255
224 213 2 0 0 255 255
225 213 2 0 0 255 255
238 213 2 0 0 255 255
239 213 2 0 0 255 255
241 213 2 0 0 255 255
239 214 2 0 0 255 255
240 214 2 0 0 255 255
226 215 2 0 0 255 255
227 215 2 0 0 255 255
226 216 2 0 0 255 255
227 216 2 0 0 255 255
227 217 2 0 0 255 255
226 218 2 0 0 255 255
227 218 2 0 0 255 255
262 238 2 0 0 255 255
262 239 2 0 0 255 255
232 260 2 0 0 255 255
233 262 2 0 0 255 255
235 262 2 0 0 255 255
237 262 2 0 0 255 255
238 262 2 0 0 255 255
235 263 2 0 0 255 255
237 263 2 0 0 255 255
238 263 2 0 0 255 255
239 263 2 0 0 255 255
235 264 2 0 0 255 255
237 264 2 0 0 255 255
238 264 2 0 0 255 255
239 264 2 0 0 255 255
238 265 2 0 0 255 255
208 200 3 0 0 255 255
207 201 3 0 0 255 255
206 202 3 0 0 255 255
207 202 3 0 0 255 255
241 209 3 0 0 255 255
241 211 3 0 0 255 255
238 212 3 0 0 255 255
239 212 3 0 0 255 255
241 212 3 0 0 255 255
238 213 3 0 0 255 255
239 213 3 0 0 255 255
241 213 3 0 0 255 255
239 214 3 0 0 255 255
240 214 3 0 0 255 255
232 260 3 0 0 255 255
233 262 3 0 0 255 255
235 262 3 0 0 255 255
237 262 3 0 0 255 255
238 262 3 0 0 255 255
235 263 3 0 0 255 255
237 263 3 0 0 255 255
238 263 3 0 0 255 255
235 264 3 0 0 255 255
237 264 3 0 0 255 255
238 264 3 0 0 255 255
206 201 4 0 0 255 255
207 201 4 0 0 255 255
238 212 4 0 0 255 255
239 212 4 0 0 255 255
241 212 4 0 0 255 255
238 213 4 0 0 255 255
239 213 4 0 0 255 255
241 213 4 0 0 255 255
239 214 4 0 0 255 255
240 214 4 0 0 255 255
232 261 4 0 0 255 255
233 262 4 0 0 255 255
235 262 4 0 0 255 255
237 262 4 0 0 255 255
238 210 5 0 0 255 255
239 210 5 0 0 255 255
241 210 5 0 0 255 255
241 211 5 0 0 255 255
237 212 5 0 0 255 255
238 212 5 0 0 255 255
239 212 5 0 0 255 255
241 212 5 0 0 255 255
238 213 5 0 0 255 255
239 213 5 0 0 255 255
241 213 5 0 0 255 255
238 214 5 0 0 255 255
239 214 5 0 0 255 255
240 214 5 0 0 255 255
241 214 5 0 0 255 255
233 258 5 0 0 255 255
233 259 5 0 0 255 255
232 260 5 0 0 255 255
232 261 5 0 0 255 255
233 261 5 0 0 255 255
235 261 5 0 0 255 255
233 262 5 0 0 255 255
235 262 5 0 0 255 255
236 262 5 0 0 255 255
235 263 5 0 0 255 255
237 212 6 0 0 255 255
238 212 6 0 0 255 255
239 212 6 0 0 255 255
241 212 6 0 0 255 255
238 213 6 0 0 255 255
239 213 6 0 0 255 255
241 213 6 0 0 255 255
238 214 6 0 0 255 255
239 214 6 0 0 255 255
240 214 6 0 0 255 255
239 215 6 0 0 255 255
232 261 6 0 0 255 255
233 262 6 0 0 255 255
235 262 6 0 0 255 255
220 258 7 0 0 255 255
220 259 7 0 0 255 255
233 259 7 0 0 255 255
232 260 7 0 0 255 255
202 267 7 0 0 255 255
239 212 8 0 0 255 255
239 213 8 0 0 255 255
239 214 8 0 0 255 255
240 214 8 0 0 255 255
239 215 8 0 0 255 255
222 257 8 0 0 255 255
223 257 8 0 0 255 255
224 257 8 0 0 255 255
220 258 8 0 0 255 255
225 258 8 0 0 255 255
220 259 8 0 0 255 255
225 259 8 0 0 255 255
232 260 8 0 0 255 255
232 261 8 0 0 255 255
212 262 8 0 0 255 255
220 262 8 0 0 255 255
231 262 8 0 0 255 255
233 262 8 0 0 255 255
202 267 8 0 0 255 255
239 212 9 0 0 255 255
239 213 9 0 0 255 255
239 214 9 0 0 255 255
240 214 9 0 0 255 255
239 215 9 0 0 255 255
258 240 9 0 0 255 255
221 257 9 0 0 255 255
222 257 9 0 0 255 255
223 257 9 0 0 255 255
224 257 9 0 0 255 255
226 257 9 0 0 255 255
217 258 9 0 0 255 255
218 258 9 0 0 255 255
220 258 9 0 0 255 255
225 258 9 0 0 255 255
220 259 9 0 0 255 255
225 259 9 0 0 255 255
232 260 9 0 0 255 255
232 261 9 0 0 255 255
212 262 9 0 0 255 255
213 262 9 0 0 255 255
214 262 9 0 0 255 255
220 262 9 0 0 255 255
225 262 9 0 0 255 255
227 262 9 0 0 255 255
231 262 9 0 0 255 255
233 262 9 0 0 255 255
212 263 9 0 0 255 255
213 263 9 0 0 255 255
214 263 9 0 0 255 255
212 264 9 0 0 255 255
213 264 9 0 0 255 255
214 264 9 0 0 255 255
215 264 9 0 0 255 255
217 264 9 0 0 255 255
212 265 9 0 0 255 255
213 265 9 0 0 255 255
202 267 9 0 0 255 255
233 215 10 0 0 255 255
233 216 10 0 0 255 255
233 217 10 0 0 255 255
233 218 10 0 0 255 255
258 240 10 0 0 255 255
221 257 10 0 0 255 255
222 257 10 0 0 255 255
223 257 10 0 0 255 255
224 257 10 0 0 255 255
226 257 10 0 0 255 255
217 258 10 0 0 255 255
218 258 10 0 0 255 255
220 258 10 0 0 255 255
225 258 10 0 0 255 255
215 259 10 0 0 255 255
217 259 10 0 0 255 255
218 259 10 0 0 255 255
220 259 10 0 0 255 255
225 259 10 0 0 255 255
232 261 10 0 0 255 255
213 262 10 0 0 255 255
214 262 10 0 0 255 255
215 262 10 0 0 255 255
217 262 10 0 0 255 255
218 262 10 0 0 255 255
220 262 10 0 0 255 255
225 262 10 0 0 255 255
227 262 10 0 0 255 255
231 262 10 0 0 255 255
213 263 10 0 0 255 255
214 263 10 0 0 255 255
215 263 10 0 0 255 255
217 263 10 0 0 255 255
218 263 10 0 0 255 255
220 263 10 0 0 255 255
213 264 10 0 0 255 255
214 264 10 0 0 255 255
215 264 10 0 0 255 255
217 264 10 0 0 255 255
202 267 10 0 0 255 255
208 204 11 0 0 255 255
208 205 11 0 0 255 255
232 215 11 0 0 255 255
232 217 11 0 0 255 255
232 218 11 0 0 255 255
232 220 11 0 0 255 255
230 221 11 0 0 255 255
211 259 11 0 0 255 255
230 259 11 0 0 255 255
207 204 12 0 0 255 255
209 204 12 0 0 255 255
207 205 12 0 0 255 255
209 205 12 0 0 255 255
208 206 12 0 0 255 255
209 206 12 0 0 255 255
209 207 12 0 0 255 255
210 208 12 0 0 255 255
212 209 12 0 0 255 255
227 213 12 0 0 255 255
228 213 12 0 0 255 255
229 213 12 0 0 255 255
231 213 12 0 0 255 255
233 213 12 0 0 255 255
235 213 12 0 0 255 255
236 213 12 0 0 255 255
237 213 12 0 0 255 255
227 214 12 0 0 255 255
230 214 12 0 0 255 255
231 214 12 0 0 255 255
232 214 12 0 0 255 255
233 214 12 0 0 255 255
235 214 12 0 0 255 255
237 214 12 0 0 255 255
225 215 12 0 0 255 255
227 215 12 0 0 255 255
231 215 12 0 0 255 255
233 215 12 0 0 255 255
235 215 12 0 0 255 255
237 215 12 0 0 255 255
230 216 12 0 0 255 255
232 216 12 0 0 255 255
225 217 12 0 0 255 255
227 217 12 0 0 255 255
231 217 12 0 0 255 255
233 217 12 0 0 255 255
235 217 12 0 0 255 255
237 217 12 0 0 255 255
225 218 12 0 0 255 255
226 218 12 0 0 255 255
227 218 12 0 0 255 255
229 218 12 0 0 255 255
231 218 12 0 0 255 255
233 218 12 0 0 255 255
235 218 12 0 0 255 255
230 219 12 0 0 255 255
232 219 12 0 0 255 255
227 220 12 0 0 255 255
231 220 12 0 0 255 255
233 220 12 0 0 255 255
257 240 12 0 0 255 255
257 241 12 0 0 255 255
216 257 12 0 0 255 255
208 261 12 0 0 255 255
211 261 12 0 0 255 255
230 261 12 0 0 255 255
232 261 12 0 0 255 255
206 262 12 0 0 255 255
207 262 12 0 0 255 255
213 262 12 0 0 255 255
214 262 12 0 0 255 255
215 262 12 0 0 255 255
217 262 12 0 0 255 255
218 262 12 0 0 255 255
220 262 12 0 0 255 255
225 262 12 0 0 255 255
227 262 12 0 0 255 255
231 262 12 0 0 255 255
213 263 12 0 0 255 255
205 264 12 0 0 255 255
206 264 12 0 0 255 255
214 264 12 0 0 255 255
215 264 12 0 0 255 255
217 264 12 0 0 255 255
218 264 12 0 0 255 255
202 267 12 0 0 255 255
209 205 13 0 0 255 255
230 214 13 0 0 255 255
231 214 13 0 0 255 255
232 214 13 0 0 255 255
233 214 13 0 0 255 255
235 214 13 0 0 255 255
226 215 13 0 0 255 255
227 215 13 0 0 255 255
228 215 13 0 0 255 255
229 215 13 0 0 255 255
231 215 13 0 0 255 255
233 215 13 0 0 255 255
235 215 13 0 0 255 255
236 215 13 0 0 255 255
226 216 13 0 0 255 255
227 216 13 0 0 255 255
229 216 13 0 0 255 255
230 216 13 0 0 255 255
231 216 13 0 0 255 255
232 216 13 0 0 255 255
233 216 13 0 0 255 255
235 216 13 0 0 255 255
227 217 13 0 0 255 255
231 217 13 0 0 255 255
233 217 13 0 0 255 255
235 217 13 0 0 255 255
226 218 13 0 0 255 255
227 218 13 0 0 255 255
229 218 13 0 0 255 255
231 218 13 0 0 255 255
233 218 13 0 0 255 255
235 218 13 0 0 255 255
230 219 13 0 0 255 255
232 219 13 0 0 255 255
231 220 13 0 0 255 255
256 240 13 0 0 255 255
257 240 13 0 0 255 255
213 258 13 0 0 255 255
214 258 13 0 0 255 255
215 258 13 0 0 255 255
217 258 13 0 0 255 255
218 258 13 0 0 255 255
220 258 13 0 0 255 255
225 258 13 0 0 255 255
215 259 13 0 0 255 255
217 259 13 0 0 255 255
218 259 13 0 0 255 255
220 259 13 0 0 255 255
225 259 13 0 0 255 255
231 215 14 0 0 255 255
233 215 14 0 0 255 255
230 216 14 0 0 255 255
232 216 14 0 0 255 255
227 217 14 0 0 255 255
231 217 14 0 0 255 255
233 217 14 0 0 255 255
229 218 14 0 0 255 255
231 218 14 0 0 255 255
233 218 14 0 0 255 255
230 219 14 0 0 255 255
257 240 14 0 0 255 255
257 241 14 0 0 255 255
232 215 15 0 0 255 255
230 217 15 0 0 255 255
232 217 15 0 0 255 255
230 218 15 0 0 255 255
232 218 15 0 0 255 255
215 257 15 0 0 255 255
231 217 16 0 0 255 255
257 241 16 0 0 255 255
214 208 17 0 0 255 255
256 242 18 0 0 255 255
256 242 20 0 0 255 255
224 214 22 0 0 255 255
224 213 23 0 0 255 255
225 214 23 0 0 255 255
226 215 23 0 0 255 255
227 215 23 0 0 255 255
227 216 23 0 0 255 255
229 216 23 0 0 255 255
256 242 23 0 0 255 255
228 257 23 0 0 255 255
224 213 24 0 0 255 255
225 214 24 0 0 255 255
226 215 24 0 0 255 255
227 215 24 0 0 255 255
227 216 24 0 0 255 255
229 216 24 0 0 255 255
256 242 24 0 0 255 255
228 257 24 0 0 255 255
257 243 41 0 0 255 255
257 244 41 0 0 255 255
258 242 42 0 0 255 255
258 243 42 0 0 255 255
258 245 42 0 0 255 255
259 245 42 0 0 255 255
258 246 42 0 0 255 255
259 246 42 0 0 255 255
258 242 43 0 0 255 255
259 242 43 0 0 255 255
225 184 44 0 0 255 255
232 126 58 0 0 255 255
231 128 58 0 0 255 255
233 128 58 0 0 255 255
246 145 120 0 0 255 255
282 156 127 0 0 255 255
281 157 127 0 0 255 255
275 141 136 0 0 255 255
277 140 139 0 0 255 255
257 141 148 0 0 255 255
254 134 150 0 0 255 255
256 134 150 0 0 255 255
253 138 150 0 0 255 255
254 138 150 0 0 255 255
254 139 150 0 0 255 255
256 139 150 0 0 255 255
258 139 150 0 0 255 255
257 141 150 0 0 255 255
254 136 152 0 0 255 255
256 137 153 0 0 255 255
107 232 184 0 0 255 255
